ply
format ascii 1.0
element vertex 689
property float x
property float y
property float z
property uchar red
property uchar green
property uchar blue
end_header
-0.3101515471935272 0.35770368576049805 4.977511405944824 255 255 255
-0.256975919008255 0.9422346949577332 4.443835258483887 255 255 255
-0.289516419172287 0.2645726203918457 5.023407459259033 255 255 255
-0.2402944415807724 1.5345808267593384 4.190937519073486 255 255 255
-0.2870157063007355 0.215495303273201 5.071811676025391 255 255 255
-0.2830805480480194 0.18110479414463043 5.086938381195068 255 255 255
-0.29594656825065613 -0.2152930498123169 5.332700252532959 255 255 255
-0.2939985990524292 -0.26507532596588135 5.360596179962158 255 255 255
-0.28518834710121155 -0.34395113587379456 5.384063243865967 255 255 255
-0.265512615442276 0.2993643879890442 5.016693115234375 255 255 255
-0.2823154032230377 -0.26096755266189575 5.352802753448486 255 255 255
-0.26283398270606995 0.24602647125720978 5.055759429931641 255 255 255
-0.2609984278678894 0.09235809743404388 5.156351089477539 255 255 255
-0.2724386751651764 -0.3302680253982544 5.389950275421143 255 255 255
-0.2564047873020172 0.17794272303581238 5.093825817108154 255 255 255
-0.21742457151412964 1.0824588537216187 4.334733486175537 255 255 255
-0.21537570655345917 1.0765012502670288 4.3583292961120605 255 255 255
-0.24780192971229553 0.28215429186820984 5.028104782104492 255 255 255
-0.24345053732395172 0.30204537510871887 5.024098873138428 255 255 255
-0.24285311996936798 0.5314486026763916 5.015130043029785 255 255 255
-0.25389665365219116 -0.33466458320617676 5.384367942810059 255 255 255
-0.25389665365219116 -0.33466458320617676 5.384367942810059 255 255 255
-0.2320774644613266 0.5765815377235413 4.988209247589111 255 255 255
-0.24949093163013458 -0.3441367745399475 5.3820319175720215 255 255 255
-0.20004674792289734 1.0837427377700806 4.335540294647217 255 255 255
-0.2236645221710205 0.18626107275485992 5.094152927398682 255 255 255
-0.2195255160331726 0.49329647421836853 5.04218053817749 255 255 255
-0.23162810504436493 -0.28285837173461914 5.388913631439209 255 255 255
-0.23160719871520996 -0.3194475471973419 5.39276123046875 255 255 255
-0.2155887633562088 0.198813334107399 5.087273120880127 255 255 255
-0.1835174560546875 1.0838720798492432 4.33645486831665 255 255 255
-0.1879630833864212 0.8233558535575867 4.512871265411377 255 255 255
-0.2025158703327179 0.6827095746994019 4.918288707733154 255 255 255
-0.20795533061027527 -0.31789445877075195 5.394413948059082 255 255 255
-0.16007429361343384 1.167431116104126 4.293112754821777 255 255 255
-0.20024028420448303 -0.29659304022789 5.388952732086182 255 255 255
-0.1832260936498642 0.23764736950397491 5.064764976501465 255 255 255
-0.1898513287305832 -0.31922271847724915 5.399857044219971 255 255 255
-0.1893489807844162 -0.29176065325737 5.389340877532959 255 255 255
-0.1450841873884201 1.7048227787017822 4.220176696777344 255 255 255
-0.17065419256687164 0.15243150293827057 5.1099443435668945 255 255 255
-0.17865747213363647 -0.24625977873802185 5.372908115386963 255 255 255
-0.17136268317699432 -0.27696385979652405 5.385226726531982 255 255 255
-0.1686236411333084 -0.2925392687320709 5.392660140991211 255 255 255
-0.13263686001300812 1.070521593093872 4.3366804122924805 255 255 255
-0.13122573494911194 1.1737722158432007 4.3021464347839355 255 255 255
-0.12284662574529648 1.8186440467834473 4.195275783538818 255 255 255
-0.12413161247968674 1.3815016746520996 4.325363636016846 255 255 255
-0.15262793004512787 -0.2968408763408661 5.402320384979248 255 255 255
-0.13644269108772278 0.7590771317481995 4.879028797149658 255 255 255
-0.13644269108772278 0.7590771317481995 4.879028797149658 255 255 255
-0.11787226051092148 1.6067817211151123 4.316166400909424 255 255 255
-0.1392236202955246 0.17770205438137054 5.106268882751465 255 255 255
-0.1167878583073616 1.5434726476669312 4.351716995239258 255 255 255
-0.11616206914186478 1.0705429315567017 4.334105491638184 255 255 255
-0.11398083716630936 1.6685127019882202 4.279625415802002 255 255 255
-0.13184382021427155 0.5929991006851196 4.991146564483643 255 255 255
-0.13497604429721832 0.3731558322906494 5.123111724853516 255 255 255
-0.13030801713466644 0.6412420272827148 4.954071998596191 255 255 255
-0.13014617562294006 0.6361933350563049 4.956629753112793 255 255 255
-0.11206552386283875 1.7075927257537842 4.269813060760498 255 255 255
-0.12924663722515106 0.5547322034835815 5.004731178283691 255 255 255
-0.12641727924346924 0.6168385148048401 4.971575736999512 255 255 255
-0.1084192618727684 1.6537494659423828 4.290000915527344 255 255 255
-0.1070963442325592 1.6601872444152832 4.280483245849609 255 255 255
-0.10789435356855392 1.6124916076660156 4.3170247077941895 255 255 255
-0.10547275096178055 1.640716791152954 4.298450946807861 255 255 255
-0.10494806617498398 1.6227296590805054 4.30645227432251 255 255 255
-0.11954347789287567 0.5818470120429993 4.994009971618652 255 255 255
-0.12050008028745651 0.24969413876533508 5.0813822746276855 255 255 255
-0.10348720848560333 1.5256884098052979 4.368540287017822 255 255 255
-0.10187454521656036 1.5386797189712524 4.352283477783203 255 255 255
-0.11339686065912247 0.7889346480369568 4.874978542327881 255 255 255
-0.09881827235221863 1.6490826606750488 4.2943315505981445 255 255 255
-0.09893561154603958 1.6348317861557007 4.300847053527832 255 255 255
-0.11734088510274887 0.3362634778022766 5.125433921813965 255 255 255
-0.09631867706775665 1.6608705520629883 4.287801265716553 255 255 255
-0.09609729051589966 1.6545207500457764 4.289266109466553 255 255 255
-0.1101764589548111 0.5307472944259644 5.030152797698975 255 255 255
-0.10886570066213608 0.6212025880813599 4.972983360290527 255 255 255
-0.09315159171819687 1.647797703742981 4.287186145782471 255 255 255
-0.09200025349855423 1.6499502658843994 4.292477607727051 255 255 255
-0.10991682857275009 0.35678789019584656 5.131529808044434 255 255 255
-0.09139003604650497 1.6644889116287231 4.281930446624756 255 255 255
-0.0923144668340683 1.5490665435791016 4.353147506713867 255 255 255
-0.11250712722539902 -0.203509122133255 5.345641613006592 255 255 255
-0.11218536645174026 -0.25697579979896545 5.379074573516846 255 255 255
-0.0889885276556015 1.654840350151062 4.283908843994141 255 255 255
-0.08745105564594269 1.6844227313995361 4.276259899139404 255 255 255
-0.10488065332174301 0.33065274357795715 5.139046669006348 255 255 255
-0.10688179731369019 -0.3292403221130371 5.403241157531738 255 255 255
-0.09923312813043594 0.2798934578895569 5.110440731048584 255 255 255
-0.0973186120390892 0.5231902003288269 5.023755073547363 255 255 255
-0.08268604427576065 1.5569591522216797 4.35339879989624 255 255 255
-0.07956989854574203 1.550474762916565 4.354408264160156 255 255 255
-0.09042800962924957 0.5376165509223938 5.017186164855957 255 255 255
-0.07425127923488617 1.6724324226379395 4.275362968444824 255 255 255
-0.07462088763713837 1.6015560626983643 4.323028087615967 255 255 255
-0.07247474044561386 1.6377034187316895 4.292770862579346 255 255 255
-0.08789230138063431 -0.2940202057361603 5.402053356170654 255 255 255
-0.07002105563879013 1.6217155456542969 4.308485507965088 255 255 255
-0.07064422219991684 1.5377323627471924 4.357763290405273 255 255 255
-0.07047378271818161 1.5544180870056152 4.3531928062438965 255 255 255
-0.07047378271818161 1.5544180870056152 4.3531928062438965 255 255 255
-0.07047378271818161 1.5544180870056152 4.3531928062438965 255 255 255
-0.06804237514734268 1.6343460083007812 4.295833587646484 255 255 255
-0.06880322098731995 1.5283265113830566 4.362131118774414 255 255 255
-0.06692636013031006 1.6050525903701782 4.320807456970215 255 255 255
-0.06692636013031006 1.6050525903701782 4.320807456970215 255 255 255
-0.07644344121217728 0.5078397393226624 5.044173240661621 255 255 255
-0.07406531274318695 0.49216774106025696 5.052268981933594 255 255 255
-0.07406531274318695 0.49216774106025696 5.052268981933594 255 255 255
-0.06269461661577225 1.6538071632385254 4.280538082122803 255 255 255
-0.06180548295378685 1.5602682828903198 4.349920749664307 255 255 255
-0.05960670858621597 1.6032216548919678 4.322776794433594 255 255 255
-0.059335384517908096 1.620779275894165 4.304450035095215 255 255 255
-0.059335384517908096 1.620779275894165 4.304450035095215 255 255 255
-0.059310585260391235 1.312780737876892 4.372206687927246 255 255 255
-0.05846087634563446 1.084228515625 4.343423366546631 255 255 255
-0.0664968341588974 0.4375322461128235 5.087917327880859 255 255 255
-0.05482930690050125 1.6762874126434326 4.270322322845459 255 255 255
-0.05613705888390541 1.5334848165512085 4.372652530670166 255 255 255
-0.05542178079485893 1.5530296564102173 4.354493141174316 255 255 255
-0.06369779258966446 0.3546939790248871 5.137561321258545 255 255 255
-0.05256831645965576 1.6394736766815186 4.295571327209473 255 255 255
-0.06452948600053787 -0.30002346634864807 5.410294532775879 255 255 255
-0.06452948600053787 -0.30002346634864807 5.410294532775879 255 255 255
-0.051465701311826706 1.3153399229049683 4.377719879150391 255 255 255
-0.060354068875312805 -0.29079529643058777 5.40299129486084 255 255 255
-0.04808971285820007 1.559044361114502 4.3520355224609375 255 255 255
-0.04779106006026268 1.0770286321640015 4.381739139556885 255 255 255
-0.04695059731602669 1.3219034671783447 4.37637186050415 255 255 255
-0.04595508798956871 1.6601831912994385 4.28397798538208 255 255 255
-0.04591161385178566 1.0854867696762085 4.346610069274902 255 255 255
-0.050831567496061325 0.29311075806617737 5.141178131103516 255 255 255
-0.05044304206967354 0.26804301142692566 5.127604007720947 255 255 255
-0.05044304206967354 0.26804301142692566 5.127604007720947 255 255 255
-0.04174342378973961 1.6267926692962646 4.308021068572998 255 255 255
-0.04174342378973961 1.6267926692962646 4.308021068572998 255 255 255
-0.04600107669830322 0.3245917558670044 4.832016468048096 255 255 255
-0.05072023347020149 -0.29143667221069336 5.403687000274658 255 255 255
-0.04769075661897659 0.29891908168792725 5.140235900878906 255 255 255
-0.039727434515953064 1.1153204441070557 4.33073616027832 255 255 255
-0.03895140811800957 1.312434196472168 4.374907970428467 255 255 255
-0.03842798247933388 1.5385526418685913 4.3677897453308105 255 255 255
-0.047166306525468826 -0.3428710401058197 5.407263278961182 255 255 255
-0.0418442003428936 0.4296821057796478 5.0927019119262695 255 255 255
-0.035432200878858566 1.176067590713501 4.3349928855896 255 255 255
-0.03520696237683296 1.5476247072219849 4.355944633483887 255 255 255
-0.03443360701203346 1.5605758428573608 4.351560115814209 255 255 255
-0.03638192266225815 0.7316079139709473 4.621736526489258 255 255 255
-0.034370891749858856 1.2571136951446533 4.36870002746582 255 255 255
-0.031130023300647736 1.6368780136108398 4.298028469085693 255 255 255
-0.030810190364718437 1.0766257047653198 4.344444274902344 255 255 255
-0.03801112249493599 -0.28226572275161743 5.407791614532471 255 255 255
-0.03021787293255329 1.0858955383300781 4.344480514526367 255 255 255
-0.035456832498311996 0.33806270360946655 5.148561954498291 255 255 255
-0.028640778735280037 1.4670249223709106 4.400642395019531 255 255 255
-0.027006449177861214 1.6389943361282349 4.290348529815674 255 255 255
-0.029819529503583908 0.2581954598426819 5.1294636726379395 255 255 255
-0.027603821828961372 0.46766504645347595 5.076679706573486 255 255 255
-0.02857886254787445 -0.3277750313282013 5.4117655754089355 255 255 255
-0.026603104546666145 0.44283217191696167 5.080827236175537 255 255 255
-0.022376585751771927 1.5847835540771484 4.335319519042969 255 255 255
-0.022376585751771927 1.5847835540771484 4.335319519042969 255 255 255
-0.025739990174770355 0.5389852523803711 5.025125503540039 255 255 255
-0.02170853316783905 1.6815346479415894 4.272615909576416 255 255 255
-0.020669013261795044 1.6892658472061157 4.275993824005127 255 255 255
-0.021000834181904793 1.5477792024612427 4.358211040496826 255 255 255
-0.024698859080672264 0.28749459981918335 5.148367881774902 255 255 255
-0.02095227688550949 1.4549436569213867 4.406431674957275 255 255 255
-0.02418164163827896 0.26177969574928284 5.125372409820557 255 255 255
-0.02418164163827896 0.26177969574928284 5.125372409820557 255 255 255
-0.019903870299458504 1.2533069849014282 4.362151622772217 255 255 255
-0.019786793738603592 1.5714337825775146 4.342935085296631 255 255 255
-0.018012452870607376 1.639270544052124 4.2898149490356445 255 255 255
-0.01867310144007206 0.32463759183883667 5.158717155456543 255 255 255
-0.014958077110350132 1.6892356872558594 4.274693489074707 255 255 255
-0.016883760690689087 0.15128788352012634 5.125237464904785 255 255 255
-0.014619242399930954 0.8429142236709595 4.486512660980225 255 255 255
-0.014209937304258347 1.5453979969024658 4.3581013679504395 255 255 255
-0.014203304424881935 1.2925639152526855 4.377155780792236 255 255 255
-0.013898693025112152 1.6558243036270142 4.286092281341553 255 255 255
-0.013811641372740269 1.6672024726867676 4.281054973602295 255 255 255
-0.01608349196612835 0.5802867412567139 5.012265682220459 255 255 255
-0.013531467877328396 1.6949745416641235 4.2755537033081055 255 255 255
-0.013531467877328396 1.6949745416641235 4.2755537033081055 255 255 255
-0.01564902439713478 0.45652303099632263 5.0821309089660645 255 255 255
-0.01239800825715065 1.5526740550994873 4.355278491973877 255 255 255
-0.011386720463633537 1.6246933937072754 4.306900501251221 255 255 255
-0.010856477543711662 1.683968424797058 4.277004241943359 255 255 255
-0.01083968672901392 1.2169599533081055 4.360577583312988 255 255 255
-0.009191117249429226 1.0891960859298706 4.3443169593811035 255 255 255
-0.00857414398342371 0.5586293935775757 5.020264625549316 255 255 255
-0.007473589386790991 1.54684579372406 4.358659267425537 255 255 255
-0.0064858328551054 0.4719400703907013 5.076696395874023 255 255 255
-0.0024579649325460196 1.4560680389404297 4.423778533935547 255 255 255
-0.0008265681681223214 0.5783064961433411 5.007536888122559 255 255 255
-0.0006509486702270806 -0.2448151409626007 5.387342929840088 255 255 255
-0.0004409310931805521 1.3265212774276733 4.397333145141602 255 255 255
9.664725803304464e-05 1.2805120944976807 4.398289203643799 255 255 255
0.001816192758269608 1.2482556104660034 4.375321388244629 255 255 255
0.0021561752073466778 1.2849596738815308 4.39202880859375 255 255 255
0.0037726855371147394 1.6046326160430908 4.326451301574707 255 255 255
0.0045867422595620155 0.4244564473628998 5.102183818817139 255 255 255
0.00403235200792551 1.6518617868423462 4.281397819519043 255 255 255
0.004181467927992344 1.4666186571121216 4.4112701416015625 255 255 255
0.006873094942420721 1.4540435075759888 4.4243597984313965 255 255 255
0.007244433276355267 1.2417727708816528 4.378857135772705 255 255 255
0.007609558757394552 1.2807844877243042 4.398359298706055 255 255 255
0.008803541772067547 1.5727356672286987 4.349057674407959 255 255 255
0.00893088337033987 1.5249226093292236 4.344211578369141 255 255 255
0.010104122571647167 0.9551844596862793 4.451927185058594 255 255 255
0.0131585244089365 -0.32705140113830566 5.4131646156311035 255 255 255
0.0131585244089365 -0.32705140113830566 5.4131646156311035 255 255 255
0.013978403061628342 -0.31625643372535706 5.416447639465332 255 255 255
0.013285147026181221 0.25795549154281616 5.133913516998291 255 255 255
0.013285147026181221 0.25795549154281616 5.133913516998291 255 255 255
0.01321224682033062 0.5411356091499329 5.033376693725586 255 255 255
0.011877899058163166 1.6492971181869507 4.2797932624816895 255 255 255
0.012221884913742542 1.549528956413269 4.3555707931518555 255 255 255
0.012416718527674675 1.6199935674667358 4.305435657501221 255 255 255
0.014208691194653511 1.4455242156982422 4.43071985244751 255 255 255
0.014011773280799389 1.2090816497802734 4.368141174316406 255 255 255
0.014011773280799389 1.2090816497802734 4.368141174316406 255 255 255
0.015245099551975727 1.1945050954818726 4.366095542907715 255 255 255
0.019526541233062744 0.33867719769477844 5.160752296447754 255 255 255
0.016606062650680542 1.2016886472702026 4.362924575805664 255 255 255
0.01673671044409275 1.2843433618545532 4.395486354827881 255 255 255
0.016889547929167747 1.2352451086044312 4.383052825927734 255 255 255
0.016852006316184998 1.6311984062194824 4.299574375152588 255 255 255
0.018758384510874748 1.2431656122207642 4.377596378326416 255 255 255
0.018758384510874748 1.2431656122207642 4.377596378326416 255 255 255
0.02000407502055168 1.5772310495376587 4.343183994293213 255 255 255
0.02000407502055168 1.5772310495376587 4.343183994293213 255 255 255
0.02100307121872902 1.1922751665115356 4.363654613494873 255 255 255
0.02442486211657524 0.5412320494651794 5.036427021026611 255 255 255
0.02442486211657524 0.5412320494651794 5.036427021026611 255 255 255
0.023859776556491852 0.7025504112243652 4.634017467498779 255 255 255
0.026843108236789703 0.3238217532634735 5.161594390869141 255 255 255
0.022586477920413017 1.629616141319275 4.296993255615234 255 255 255
0.023212632164359093 1.2323665618896484 4.381096839904785 255 255 255
0.023723550140857697 1.6881638765335083 4.2393479347229 255 255 255
0.026281384751200676 0.7130003571510315 4.629825592041016 255 255 255
0.025557678192853928 1.538920283317566 4.359420299530029 255 255 255
0.03185024484992027 -0.3005244731903076 5.416536331176758 255 255 255
0.026795199140906334 1.315604567527771 4.411871910095215 255 255 255
0.02592911384999752 1.694435477256775 4.223278045654297 255 255 255
0.028422407805919647 1.4202739000320435 4.436282157897949 255 255 255
0.028545482084155083 1.2455079555511475 4.373178005218506 255 255 255
0.028545482084155083 1.2455079555511475 4.373178005218506 255 255 255
0.029102036729454994 1.1512150764465332 4.356442928314209 255 255 255
0.03416862711310387 0.43740880489349365 5.097594261169434 255 255 255
0.0345936119556427 0.33169764280319214 5.156855583190918 255 255 255
0.032006800174713135 0.7431415319442749 4.637734413146973 255 255 255
0.032006800174713135 0.7431415319442749 4.637734413146973 255 255 255
0.03820529580116272 -0.22241784632205963 5.3769145011901855 255 255 255
0.030932778492569923 1.0883285999298096 4.346887111663818 255 255 255
0.030480293557047844 1.7599793672561646 4.181695461273193 255 255 255
0.03214486688375473 1.584955096244812 4.335861682891846 255 255 255
0.0331919901072979 1.4536687135696411 4.425366401672363 255 255 255
0.03364960849285126 1.1168928146362305 4.351634979248047 255 255 255
0.03354533761739731 1.692302942276001 4.226619720458984 255 255 255
0.04207128658890724 0.2585560381412506 5.14168119430542 255 255 255
0.038346823304891586 1.2845841646194458 4.39328145980835 255 255 255
0.03803094103932381 1.1388686895370483 4.3569159507751465 255 255 255
0.045891258865594864 0.20832931995391846 5.119989395141602 255 255 255
0.046839337795972824 0.5261268615722656 5.040406227111816 255 255 255
0.051348306238651276 -0.32678720355033875 5.418113708496094 255 255 255
0.04161578044295311 1.53360915184021 4.359037399291992 255 255 255
0.049529388546943665 0.518018901348114 5.052350997924805 255 255 255
0.049529388546943665 0.518018901348114 5.052350997924805 255 255 255
0.046068090945482254 1.6023671627044678 4.335153579711914 255 255 255
0.046068090945482254 1.6023671627044678 4.335153579711914 255 255 255
0.04647873342037201 1.6203069686889648 4.31649923324585 255 255 255
0.04689967259764671 1.087754487991333 4.347276210784912 255 255 255
0.04788810759782791 1.5873076915740967 4.341386795043945 255 255 255
0.048129577189683914 1.0825215578079224 4.345119953155518 255 255 255
0.06179450824856758 -0.2825205326080322 5.404839038848877 255 255 255
0.050309665501117706 1.480562686920166 4.392250061035156 255 255 255
0.05142319202423096 1.6006335020065308 4.333219051361084 255 255 255
0.051824603229761124 1.6218314170837402 4.310674667358398 255 255 255
0.05477166920900345 0.9172407388687134 4.477833271026611 255 255 255
0.055506836622953415 1.437622308731079 4.423177719116211 255 255 255
0.05463169515132904 1.6142358779907227 4.319784641265869 255 255 255
0.06802326440811157 0.3455478549003601 5.156921863555908 255 255 255
0.05773560330271721 1.6071105003356934 4.3343071937561035 255 255 255
0.07286337018013 -0.24254268407821655 5.3978962898254395 255 255 255
0.06923078745603561 0.45489245653152466 5.088624954223633 255 255 255
0.06032371148467064 1.4687213897705078 4.4094672203063965 255 255 255
0.06096755713224411 1.4752331972122192 4.402214527130127 255 255 255
0.07054684311151505 0.513673722743988 5.04571533203125 255 255 255
0.07054684311151505 0.513673722743988 5.04571533203125 255 255 255
0.06134207919239998 1.5016220808029175 4.382287502288818 255 255 255
0.060162559151649475 1.6910828351974487 4.2680253982543945 255 255 255
0.06341096758842468 1.484354019165039 4.398962497711182 255 255 255
0.06284250319004059 1.5407264232635498 4.354104518890381 255 255 255
0.06863206624984741 1.4672993421554565 4.4071879386901855 255 255 255
0.06697734445333481 1.6838430166244507 4.2794599533081055 255 255 255
0.0697588250041008 1.6157811880111694 4.326591491699219 255 255 255
0.0704631507396698 1.5730398893356323 4.340565204620361 255 255 255
0.0715208575129509 1.551013469696045 4.361527442932129 255 255 255
0.08366064727306366 0.45901647210121155 5.089433193206787 255 255 255
0.08366064727306366 0.45901647210121155 5.089433193206787 255 255 255
0.08418192714452744 0.21067407727241516 5.117645740509033 255 255 255
0.07433066517114639 1.1625934839248657 4.343111515045166 255 255 255
0.07573948800563812 1.603175163269043 4.33666467666626 255 255 255
0.07745575159788132 1.4340715408325195 4.428309440612793 255 255 255
0.07789066433906555 1.0879732370376587 4.350742340087891 255 255 255
0.07923974841833115 1.2500931024551392 4.375108242034912 255 255 255
0.08000024408102036 1.1735937595367432 4.342372894287109 255 255 255
0.10010313242673874 -0.33192896842956543 5.4224395751953125 255 255 255
0.08012814074754715 1.6092791557312012 4.334591388702393 255 255 255
0.07932571321725845 1.695913314819336 4.277402877807617 255 255 255
0.07955272495746613 1.6568831205368042 4.2863030433654785 255 255 255
0.09622276574373245 0.36640626192092896 5.146714210510254 255 255 255
0.09622276574373245 0.36640626192092896 5.146714210510254 255 255 255
0.10169928520917892 -0.29379650950431824 5.4200439453125 255 255 255
0.08241251856088638 1.5421277284622192 4.3645782470703125 255 255 255
0.10257464647293091 -0.3415650725364685 5.424088478088379 255 255 255
0.08326702564954758 1.5881495475769043 4.3384904861450195 255 255 255
0.09836483001708984 0.4711573123931885 5.080624580383301 255 255 255
0.08307133615016937 1.682373285293579 4.269556522369385 255 255 255
0.08636751770973206 1.503321647644043 4.392094612121582 255 255 255
0.08674005419015884 1.2470319271087646 4.376585960388184 255 255 255
0.1024039089679718 0.3407150208950043 5.158568382263184 255 255 255
0.10356056690216064 0.1442965567111969 5.13134765625 255 255 255
0.08714842051267624 1.63568913936615 4.308960914611816 255 255 255
0.11030355840921402 -0.30284905433654785 5.421289920806885 255 255 255
0.09157195687294006 1.1738587617874146 4.341943740844727 255 255 255
0.12002254277467728 -0.29926085472106934 5.430130481719971 255 255 255
0.09678719937801361 1.5396270751953125 4.377726078033447 255 255 255
0.09655445069074631 1.5757131576538086 4.343952178955078 255 255 255
0.09992874413728714 0.9139344096183777 4.486011505126953 255 255 255
0.11546548455953598 0.3007238507270813 5.148494720458984 255 255 255
0.10312777012586594 0.8098490834236145 4.561784744262695 255 255 255
0.12373491376638412 -0.28331175446510315 5.4204559326171875 255 255 255
0.11870947480201721 0.4418013095855713 5.100922584533691 255 255 255
0.11870947480201721 0.4418013095855713 5.100922584533691 255 255 255
0.12048960477113724 0.4283142387866974 5.110808849334717 255 255 255
0.10241086035966873 1.6290974617004395 4.315583229064941 255 255 255
0.10476536303758621 1.6005473136901855 4.3387227058410645 255 255 255
0.10340452939271927 1.6811103820800781 4.276341438293457 255 255 255
0.10340452939271927 1.6811103820800781 4.276341438293457 255 255 255
0.10645454376935959 1.5415793657302856 4.376053333282471 255 255 255
0.13250818848609924 -0.22484664618968964 5.396024227142334 255 255 255
0.10615494102239609 1.7452375888824463 4.290222644805908 255 255 255
0.10754796117544174 1.6137328147888184 4.32036018371582 255 255 255
0.10708463191986084 1.7510353326797485 4.285243988037109 255 255 255
0.11042724549770355 1.6264958381652832 4.314782619476318 255 255 255
0.11606934666633606 1.1327130794525146 4.334414958953857 255 255 255
0.13843759894371033 0.3471699059009552 5.164289474487305 255 255 255
0.12153177708387375 0.8707024455070496 4.4973978996276855 255 255 255
0.11852798610925674 1.6385406255722046 4.305527687072754 255 255 255
0.11786548793315887 1.6802146434783936 4.272695541381836 255 255 255
0.14219999313354492 0.4597216546535492 5.087061882019043 255 255 255
0.12330204993486404 1.530638337135315 4.3748650550842285 255 255 255
0.15879051387310028 -0.31517884135246277 5.433347702026367 255 255 255
0.12674111127853394 1.1774874925613403 4.335937976837158 255 255 255
0.1280716359615326 1.6721526384353638 4.29066276550293 255 255 255
0.15477192401885986 0.38812369108200073 5.138095378875732 255 255 255
0.13499532639980316 1.0386189222335815 4.414102554321289 255 255 255
0.13139548897743225 1.6551927328109741 4.297508716583252 255 255 255
0.15658783912658691 0.24950261414051056 5.111546516418457 255 255 255
0.15824241936206818 0.48990124464035034 5.067400932312012 255 255 255
0.15824241936206818 0.48990124464035034 5.067400932312012 255 255 255
0.16127116978168488 0.4765487015247345 5.082016468048096 255 255 255
0.13891637325286865 1.242271900177002 4.344757080078125 255 255 255
0.16067887842655182 0.5397725701332092 5.023494243621826 255 255 255
0.13537637889385223 1.858211874961853 4.219221591949463 255 255 255
0.13537637889385223 1.858211874961853 4.219221591949463 255 255 255
0.16604618728160858 0.3470391631126404 5.163516044616699 255 255 255
0.1394331455230713 1.153160810470581 4.325235843658447 255 255 255
0.1756814867258072 -0.3399881422519684 5.431186199188232 255 255 255
0.1756814867258072 -0.3399881422519684 5.431186199188232 255 255 255
0.141079381108284 1.074044942855835 4.351862907409668 255 255 255
0.14358815550804138 1.054663062095642 4.39891242980957 255 255 255
0.14373888075351715 1.5095884799957275 4.399292469024658 255 255 255
0.16566164791584015 0.5072230100631714 5.0689778327941895 255 255 255
0.14170676469802856 1.6778203248977661 4.287534713745117 255 255 255
0.13980042934417725 1.865876317024231 4.218993663787842 255 255 255
0.18003451824188232 -0.2766115367412567 5.429697036743164 255 255 255
0.1489209234714508 0.949457585811615 4.460198879241943 255 255 255
0.1489209234714508 0.949457585811615 4.460198879241943 255 255 255
0.1797957420349121 -0.20623503625392914 5.374435901641846 255 255 255
0.18613149225711823 -0.31125861406326294 5.428280830383301 255 255 255
0.1782640814781189 0.3770018219947815 5.146971225738525 255 255 255
0.17927201092243195 0.36235374212265015 5.151107311248779 255 255 255
0.1762153059244156 0.5169390439987183 5.052500247955322 255 255 255
0.18864940106868744 -0.24016624689102173 5.400016784667969 255 255 255
0.19301538169384003 -0.4199531078338623 5.491126537322998 255 255 255
0.15147607028484344 1.6634749174118042 4.302038192749023 255 255 255
0.19170023500919342 -0.3147963881492615 5.441317081451416 255 255 255
0.15642721951007843 1.6258337497711182 4.317490577697754 255 255 255
0.15371859073638916 1.8610435724258423 4.218583583831787 255 255 255
0.15675625205039978 1.708014965057373 4.293748378753662 255 255 255
0.18732328712940216 0.21176037192344666 5.111502170562744 255 255 255
0.18732328712940216 0.21176037192344666 5.111502170562744 255 255 255
0.15932905673980713 1.6094639301300049 4.328681945800781 255 255 255
0.18563929200172424 0.5739617943763733 5.029000282287598 255 255 255
0.16603557765483856 0.8839352130889893 4.4877214431762695 255 255 255
0.20181392133235931 -0.3159654140472412 5.436377048492432 255 255 255
0.16039834916591644 1.2194173336029053 4.3211517333984375 255 255 255
0.19304853677749634 0.24978633224964142 5.1057353019714355 255 255 255
0.16412001848220825 1.6191614866256714 4.327268123626709 255 255 255
0.19250041246414185 0.5233683586120605 5.057489395141602 255 255 255
0.19120481610298157 0.608312726020813 5.000168323516846 255 255 255
0.16452240943908691 1.710556983947754 4.291141033172607 255 255 255
0.166092649102211 1.6502619981765747 4.320685386657715 255 255 255
0.19696494936943054 0.5618817210197449 5.032476425170898 255 255 255
0.20196396112442017 0.3799861669540405 5.149451732635498 255 255 255
0.19673599302768707 0.598653256893158 5.009782791137695 255 255 255
0.19816161692142487 0.5463466644287109 5.0383477210998535 255 255 255
0.17200663685798645 1.1740914583206177 4.320282936096191 255 255 255
0.17470544576644897 1.5519747734069824 4.368930816650391 255 255 255
0.2049102783203125 0.422881543636322 5.118139266967773 255 255 255
0.2049102783203125 0.422881543636322 5.118139266967773 255 255 255
0.22002887725830078 -0.32887518405914307 5.432240009307861 255 255 255
0.22002887725830078 -0.32887518405914307 5.432240009307861 255 255 255
0.17366813123226166 1.7178760766983032 4.28156042098999 255 255 255
0.17590802907943726 1.2357735633850098 4.31242036819458 255 255 255
0.20800264179706573 0.5633780360221863 5.030447959899902 255 255 255
0.18025994300842285 1.5981354713439941 4.344563961029053 255 255 255
0.21495352685451508 0.2070598304271698 5.113335132598877 255 255 255
0.21573849022388458 0.2317151427268982 5.110282897949219 255 255 255
0.2140062004327774 0.5858391523361206 5.0197601318359375 255 255 255
0.23203697800636292 -0.24072016775608063 5.411235332489014 255 255 255
0.18720759451389313 1.6544286012649536 4.307607173919678 255 255 255
0.2363538146018982 -0.2636995017528534 5.427552223205566 255 255 255
0.21477818489074707 0.7320846319198608 4.922877788543701 255 255 255
0.1991247832775116 0.8290364146232605 4.520434856414795 255 255 255
0.19231215119361877 1.372200846672058 4.347146511077881 255 255 255
0.19082507491111755 1.2432944774627686 4.312103748321533 255 255 255
0.24103423953056335 -0.3260112702846527 5.437032222747803 255 255 255
0.18786971271038055 1.7711377143859863 4.2289533615112305 255 255 255
0.24258828163146973 -0.3150978684425354 5.440727710723877 255 255 255
0.24306045472621918 -0.2871943414211273 5.430261611938477 255 255 255
0.19677415490150452 1.1755043268203735 4.314840316772461 255 255 255
0.2535046637058258 -0.2926478385925293 5.4338836669921875 255 255 255
0.2535046637058258 -0.2926478385925293 5.4338836669921875 255 255 255
0.23084068298339844 0.7309862971305847 4.9305620193481445 255 255 255
0.20359167456626892 1.3945810794830322 4.337535858154297 255 255 255
0.2407788187265396 0.27779620885849 5.106489181518555 255 255 255
0.24263080954551697 0.4180760681629181 5.1269025802612305 255 255 255
0.21527628600597382 0.8570924997329712 4.501066207885742 255 255 255
0.24592259526252747 0.4089803695678711 5.128367900848389 255 255 255
0.21097275614738464 1.0866655111312866 4.39673376083374 255 255 255
0.2611989676952362 -0.3294423818588257 5.43764591217041 255 255 255
0.2611989676952362 -0.3294423818588257 5.43764591217041 255 255 255
0.21521610021591187 0.9390878677368164 4.480869293212891 255 255 255
0.20801948010921478 1.2532958984375 4.309692859649658 255 255 255
0.2085682600736618 1.2467747926712036 4.313478946685791 255 255 255
0.26463136076927185 -0.2869415581226349 5.43081521987915 255 255 255
0.26463136076927185 -0.2869415581226349 5.43081521987915 255 255 255
0.24356868863105774 0.6812518239021301 4.957383632659912 255 255 255
0.2673581838607788 -0.27996012568473816 5.430089950561523 255 255 255
0.27244284749031067 -0.4249114990234375 5.484263896942139 255 255 255
0.21548524498939514 1.1684786081314087 4.320743083953857 255 255 255
0.22014710307121277 1.2662591934204102 4.296586036682129 255 255 255
0.2795802652835846 -0.2982354462146759 5.440388202667236 255 255 255
0.2550249695777893 0.6857144236564636 4.9533843994140625 255 255 255
0.2550249695777893 0.6857144236564636 4.9533843994140625 255 255 255
0.2835122048854828 -0.31489402055740356 5.446412086486816 255 255 255
0.26606661081314087 0.7100209593772888 4.94714879989624 255 255 255
0.24089959263801575 0.9415058493614197 4.476964473724365 255 255 255
0.23211702704429626 1.7814279794692993 4.256437301635742 255 255 255
0.28345251083374023 0.1458609253168106 5.152693271636963 255 255 255
0.3008028566837311 -0.29119202494621277 5.435335636138916 255 255 255
0.24209092557430267 1.5673478841781616 4.288442611694336 255 255 255
0.23598185181617737 1.7641260623931885 4.173364639282227 255 255 255
0.23598185181617737 1.7641260623931885 4.173364639282227 255 255 255
0.2806299030780792 0.7000874876976013 4.953026294708252 255 255 255
0.3092695474624634 -0.3392913043498993 5.440364360809326 255 255 255
0.2796149253845215 0.7413998246192932 4.868782997131348 255 255 255
0.31457409262657166 -0.297259122133255 5.427599906921387 255 255 255
0.29816529154777527 0.5107755661010742 5.076900959014893 255 255 255
0.2998673915863037 0.2738470137119293 5.0864667892456055 255 255 255
0.29489216208457947 0.6349876523017883 4.992599010467529 255 255 255
0.30011045932769775 0.43302813172340393 5.077359676361084 255 255 255
0.26731806993484497 0.864475429058075 4.506791114807129 255 255 255
0.3598719835281372 -1.1952934265136719 6.03817081451416 255 255 255
0.32398420572280884 -0.3014625608921051 5.4376540184021 255 255 255
0.2978034019470215 0.6531297564506531 4.986871242523193 255 255 255
0.26176321506500244 1.0705294609069824 4.3623857498168945 255 255 255
0.3236677050590515 -0.20448923110961914 5.3811445236206055 255 255 255
0.30683696269989014 0.2596691846847534 5.09136962890625 255 255 255
0.3008826971054077 0.6784132719039917 4.975327014923096 255 255 255
0.25071024894714355 1.7922569513320923 4.1366286277771 255 255 255
0.25654593110084534 1.6553645133972168 4.223415851593018 255 255 255
0.3081684112548828 0.31903448700904846 5.071300506591797 255 255 255
0.31345900893211365 0.16263505816459656 5.147482395172119 255 255 255
0.3727295994758606 -1.2266336679458618 6.057469844818115 255 255 255
0.31273534893989563 0.5599323511123657 5.045101165771484 255 255 255
0.318044513463974 0.30232253670692444 5.075216770172119 255 255 255
0.34264758229255676 -0.32937318086624146 5.445925712585449 255 255 255
0.3231009542942047 0.21864329278469086 5.131960868835449 255 255 255
0.324597030878067 0.17399972677230835 5.1434221267700195 255 255 255
0.324597030878067 0.17399972677230835 5.1434221267700195 255 255 255
0.2859257757663727 0.8302635550498962 4.525156497955322 255 255 255
0.33031806349754333 0.08511223644018173 5.2187933921813965 255 255 255
0.3197948634624481 0.36264562606811523 5.05122709274292 255 255 255
0.277601033449173 1.0890713930130005 4.369192600250244 255 255 255
0.3464984893798828 -0.26438626646995544 5.425686836242676 255 255 255
0.3464984893798828 -0.26438626646995544 5.425686836242676 255 255 255
0.26513203978538513 1.734115719795227 4.150669097900391 255 255 255
0.26463451981544495 1.7529488801956177 4.138668537139893 255 255 255
0.38788866996765137 -1.1515270471572876 6.026278972625732 255 255 255
0.331389456987381 0.1474088728427887 5.148620128631592 255 255 255
0.34695690870285034 -0.16333776712417603 5.370029926300049 255 255 255
0.3337642550468445 0.16296078264713287 5.154189586639404 255 255 255
0.3363485038280487 0.24946025013923645 5.111098766326904 255 255 255
0.35943081974983215 -0.3243164122104645 5.448979377746582 255 255 255
0.33253973722457886 0.5183010697364807 5.026494026184082 255 255 255
0.33569666743278503 0.3071485757827759 5.068725109100342 255 255 255
0.27739834785461426 1.6508828401565552 4.160604000091553 255 255 255
0.28232643008232117 1.591249704360962 4.228607177734375 255 255 255
0.2858433425426483 1.2566678524017334 4.272001266479492 255 255 255
0.36123934388160706 -0.19610579311847687 5.393344879150391 255 255 255
0.3401385247707367 0.3274179995059967 5.060490131378174 255 255 255
0.3034123182296753 0.9139837622642517 4.492185115814209 255 255 255
0.3691868782043457 -0.2997203767299652 5.446020603179932 255 255 255
0.29608479142189026 1.0876128673553467 4.366425514221191 255 255 255
0.4113086462020874 -1.1247917413711548 6.0165510177612305 255 255 255
0.28455686569213867 1.7096256017684937 4.153005123138428 255 255 255
0.28160619735717773 1.783591866493225 4.102861404418945 255 255 255
0.35376766324043274 0.18840135633945465 5.13941764831543 255 255 255
0.35138875246047974 0.3234277367591858 5.056562900543213 255 255 255
0.2880273461341858 1.728785753250122 4.125008583068848 255 255 255
0.3785093426704407 -0.23510344326496124 5.404534339904785 255 255 255
0.42074012756347656 -1.1086431741714478 6.004052639007568 255 255 255
0.35488831996917725 0.3460775315761566 5.04722785949707 255 255 255
0.3602629601955414 0.2420969009399414 5.1191864013671875 255 255 255
0.3602629601955414 0.2420969009399414 5.1191864013671875 255 255 255
0.38517603278160095 -0.26307412981987 5.4438323974609375 255 255 255
0.42721790075302124 -1.0673836469650269 5.977450370788574 255 255 255
0.35354602336883545 0.7056176662445068 4.890523910522461 255 255 255
0.3697555959224701 0.2488444745540619 5.11021089553833 255 255 255
0.4203062057495117 -0.778296172618866 5.797396183013916 255 255 255
0.31125301122665405 1.3084150552749634 4.256093978881836 255 255 255
0.36912667751312256 0.3665759563446045 5.03651762008667 255 255 255
0.3676474392414093 0.5639958381652832 4.975152492523193 255 255 255
0.3693746328353882 0.5312504768371582 4.991814613342285 255 255 255
0.3047378659248352 1.7803970575332642 4.081089973449707 255 255 255
0.4275015592575073 -0.6129936575889587 5.695602893829346 255 255 255
0.3090185225009918 1.7234746217727661 4.09275484085083 255 255 255
0.40990933775901794 -0.17137080430984497 5.388521671295166 255 255 255
0.3249349594116211 1.4174797534942627 4.212308406829834 255 255 255
0.402436226606369 0.3071784973144531 5.078862190246582 255 255 255
0.3928488492965698 0.5422132611274719 4.957391738891602 255 255 255
0.33124494552612305 1.5565202236175537 4.174182415008545 255 255 255
0.40970709919929504 0.23941655457019806 5.121932029724121 255 255 255
0.42596808075904846 -0.035568851977586746 5.296496391296387 255 255 255
0.33452320098876953 1.6243813037872314 4.121418476104736 255 255 255
0.36459052562713623 0.9471824765205383 4.46668815612793 255 255 255
0.34491610527038574 1.4053714275360107 4.2147650718688965 255 255 255
0.3383440375328064 1.6316653490066528 4.109986305236816 255 255 255
0.37040090560913086 0.9162008762359619 4.496992588043213 255 255 255
0.4362909495830536 -0.2458754926919937 5.292804718017578 255 255 255
0.3734590411186218 0.8651235103607178 4.513460636138916 255 255 255
0.4487818479537964 -0.32307329773902893 5.350555896759033 255 255 255
0.34156230092048645 1.780934453010559 4.044650077819824 255 255 255
0.3823775053024292 0.8966995477676392 4.500077724456787 255 255 255
0.3470456898212433 1.7039459943771362 4.070981025695801 255 255 255
0.38399645686149597 0.8849101662635803 4.500071048736572 255 255 255
0.5062255859375 -1.165717363357544 5.92547607421875 255 255 255
0.45426470041275024 -0.26400521397590637 5.311545372009277 255 255 255
0.3618611991405487 1.3606077432632446 4.216951370239258 255 255 255
0.45743533968925476 -0.25050172209739685 5.3181376457214355 255 255 255
0.3872619569301605 0.9181991219520569 4.497834205627441 255 255 255
0.43884074687957764 0.09560543298721313 5.073816299438477 255 255 255
0.35609114170074463 1.5936644077301025 4.10707950592041 255 255 255
0.36539584398269653 1.383821964263916 4.209107398986816 255 255 255
0.38274845480918884 1.0697627067565918 4.3653388023376465 255 255 255
0.35742297768592834 1.7015910148620605 4.0635905265808105 255 255 255
0.47456395626068115 -0.33886244893074036 5.369920253753662 255 255 255
0.4772280752658844 -0.35524722933769226 5.370973587036133 255 255 255
0.4775919020175934 -0.36491474509239197 5.367082118988037 255 255 255
0.3657338321208954 1.6197524070739746 4.075897693634033 255 255 255
0.3648951053619385 1.7024670839309692 4.053948879241943 255 255 255
0.3790442943572998 1.4154654741287231 4.190273284912109 255 255 255
0.3731728792190552 1.5969343185424805 4.110105037689209 255 255 255
0.37130358815193176 1.6098898649215698 4.087915420532227 255 255 255
0.37187331914901733 1.6169579029083252 4.075808525085449 255 255 255
0.37187331914901733 1.6169579029083252 4.075808525085449 255 255 255
0.489932119846344 -0.3026926517486572 5.359533309936523 255 255 255
0.4112379252910614 0.9195513129234314 4.493598461151123 255 255 255
0.4970078766345978 -0.3532488942146301 5.358091354370117 255 255 255
0.38308876752853394 1.6072205305099487 4.085444927215576 255 255 255
0.5029778480529785 -0.30345574021339417 5.348079681396484 255 255 255
0.4438345730304718 0.7527100443840027 4.579575061798096 255 255 255
0.4438345730304718 0.7527100443840027 4.579575061798096 255 255 255
0.45764943957328796 0.7203614115715027 4.616552352905273 255 255 255
0.4494422972202301 0.8868388533592224 4.472052097320557 255 255 255
0.49617132544517517 0.5778271555900574 4.711291313171387 255 255 255
0.5374327898025513 0.10772580653429031 5.080325603485107 255 255 255
0.5050920844078064 0.5329799652099609 4.758693218231201 255 255 255
0.44256338477134705 1.3973511457443237 4.1413469314575195 255 255 255
0.4476623237133026 1.4319626092910767 4.126990795135498 255 255 255
0.4496605396270752 1.406008243560791 4.140881061553955 255 255 255
0.6728807687759399 -1.2568669319152832 6.14761209487915 255 255 255
0.6807382702827454 -1.3223168849945068 6.153615474700928 255 255 255
0.6816796660423279 -1.2547104358673096 6.146284580230713 255 255 255
0.6853780746459961 -1.1856504678726196 6.176541805267334 255 255 255
0.5029966235160828 0.9179413914680481 4.487021446228027 255 255 255
0.6926884055137634 -1.2287958860397339 6.174343585968018 255 255 255
0.6955787539482117 -1.2394546270370483 6.145360469818115 255 255 255
0.5019427537918091 1.1565507650375366 4.324026107788086 255 255 255
0.6959070563316345 -0.7013593912124634 5.944985866546631 255 255 255
0.7240799069404602 -1.2612037658691406 6.154407024383545 255 255 255
0.4877833425998688 1.4064619541168213 4.143758296966553 255 255 255
0.7261605858802795 -1.2522180080413818 6.154240131378174 255 255 255
0.6497268080711365 -0.40161746740341187 5.4928998947143555 255 255 255
0.6516101956367493 -0.41115623712539673 5.50024938583374 255 255 255
0.7164681553840637 -0.8252753019332886 6.0320000648498535 255 255 255
0.49364614486694336 1.4234493970870972 4.134912490844727 255 255 255
0.7385851144790649 -1.2599694728851318 6.149875640869141 255 255 255
0.6580639481544495 -0.31856247782707214 5.4541473388671875 255 255 255
0.5008457899093628 1.3961046934127808 4.147347927093506 255 255 255
0.6657432317733765 -0.4189673066139221 5.503308296203613 255 255 255
0.6657432317733765 -0.4189673066139221 5.503308296203613 255 255 255
0.6599177718162537 -0.30579429864883423 5.454568862915039 255 255 255
0.6649101972579956 -0.40971750020980835 5.494631767272949 255 255 255
0.6649689078330994 -0.29616445302963257 5.452420234680176 255 255 255
0.5077836513519287 1.407655119895935 4.148669242858887 255 255 255
0.6225152015686035 0.32059234380722046 5.081359386444092 255 255 255
0.6732949018478394 -0.28461527824401855 5.460698127746582 255 255 255
0.7582947611808777 -1.0775238275527954 6.125129222869873 255 255 255
0.6762657761573792 -0.29452380537986755 5.455441951751709 255 255 255
0.6803568005561829 -0.15262587368488312 5.441687107086182 255 255 255
0.7642434239387512 -1.1193938255310059 6.113450050354004 255 255 255
0.7679153680801392 -1.0818819999694824 6.114011764526367 255 255 255
0.7680935263633728 -1.0675615072250366 6.106151103973389 255 255 255
0.6818693280220032 -0.04256292060017586 5.382662773132324 255 255 255
0.5251863598823547 1.402469515800476 4.1446428298950195 255 255 255
0.5137171149253845 1.569753646850586 4.047725200653076 255 255 255
0.5736382007598877 0.9147824048995972 4.513801574707031 255 255 255
0.6541222333908081 0.2158813625574112 5.143557071685791 255 255 255
0.6506345868110657 0.26246607303619385 5.111161231994629 255 255 255
0.6516392230987549 0.2693221867084503 5.109237194061279 255 255 255
0.6560361981391907 0.21855652332305908 5.142719745635986 255 255 255
0.6978235244750977 -0.3337799608707428 5.456015110015869 255 255 255
0.6538974046707153 0.2467302829027176 5.1023850440979 255 255 255
0.6538974046707153 0.2467302829027176 5.1023850440979 255 255 255
0.6534709930419922 0.2838970720767975 5.097830295562744 255 255 255
0.7012922763824463 -0.28975850343704224 5.46333122253418 255 255 255
0.7012922763824463 -0.28975850343704224 5.46333122253418 255 255 255
0.6510708928108215 0.3434247076511383 5.057912349700928 255 255 255
0.6595611572265625 0.2709398865699768 5.10953426361084 255 255 255
0.6556643843650818 0.33541858196258545 5.0634002685546875 255 255 255
0.7033589482307434 -0.24403324723243713 5.425312519073486 255 255 255
0.7033589482307434 -0.24403324723243713 5.425312519073486 255 255 255
0.6563071012496948 0.35347920656204224 5.049749851226807 255 255 255
0.6670064926147461 0.2835984230041504 5.104187965393066 255 255 255
0.769996702671051 -0.6833428740501404 5.86764669418335 255 255 255
0.666817307472229 0.3288578391075134 5.065846920013428 255 255 255
0.666817307472229 0.3288578391075134 5.065846920013428 255 255 255
0.6790538430213928 0.20698179304599762 5.148499488830566 255 255 255
0.6640679836273193 0.4677548408508301 5.015793800354004 255 255 255
0.684683084487915 0.2254544198513031 5.135306358337402 255 255 255
0.6833231449127197 0.28813251852989197 5.088476657867432 255 255 255
0.7312951683998108 -0.24672046303749084 5.431203365325928 255 255 255
0.6844137907028198 0.31521278619766235 5.076693058013916 255 255 255
0.6856455206871033 0.32897061109542847 5.0737152099609375 255 255 255
0.6819704174995422 0.518338143825531 5.0316243171691895 255 255 255
0.7025313377380371 0.1370309442281723 5.172875881195068 255 255 255
0.6916449069976807 0.5808039307594299 5.067872524261475 255 255 255
0.6190680265426636 0.9303821325302124 4.510594367980957 255 255 255
0.6941670179367065 0.4176037311553955 5.049729347229004 255 255 255
0.7032809257507324 0.3016197681427002 5.085610866546631 255 255 255
0.7047812342643738 0.2896903157234192 5.08767032623291 255 255 255
0.8501153588294983 -1.264546513557434 6.133649826049805 255 255 255
0.7658942341804504 -0.4197147488594055 5.5070085525512695 255 255 255
0.7008695602416992 0.4652179777622223 5.014434814453125 255 255 255
0.765434741973877 -0.29774537682533264 5.4587836265563965 255 255 255
0.7705187201499939 -0.2711925804615021 5.461028575897217 255 255 255
0.6404575705528259 0.8621603846549988 4.533778667449951 255 255 255
0.7771723866462708 -0.29130858182907104 5.45680570602417 255 255 255
0.7817844152450562 -0.34969019889831543 5.474040985107422 255 255 255
0.7790160179138184 -0.26303574442863464 5.447375297546387 255 255 255
0.8197833299636841 -0.4990071952342987 5.694073677062988 255 255 255
0.787858784198761 -0.3042108118534088 5.460014820098877 255 255 255
0.787858784198761 -0.3042108118534088 5.460014820098877 255 255 255
0.7877148389816284 -0.21507710218429565 5.443727016448975 255 255 255
0.688555896282196 0.7912191152572632 4.75762414932251 255 255 255
0.6632192134857178 0.8237606883049011 4.574099063873291 255 255 255
0.7931928038597107 -0.3260517418384552 5.465275764465332 255 255 255
0.7316045761108398 0.6610356569290161 5.019193649291992 255 255 255
0.6536503434181213 0.9599625468254089 4.477254867553711 255 255 255
0.6536503434181213 0.9599625468254089 4.477254867553711 255 255 255
